-4689  -4689  -4689  -4690  -4643  -4597  -4585  -4598  -4597  -4595  -4523  -4594  -4414  -4414  -4594  -4412  -4589  -4586  -4462  -4400  -4399  -4286  -4502  -4472  -4423  -4383  -4400  -4439  -4467  -4480  -4491  -4500  -4502  -4514  -4518  -4525  -4527  -4528  -4528  -4522  -4514  -4498  -4451  -4450  -4404  -4409  -4415  -4404  -4390  -4379  -4369  -4354  -4327  -4268  -4211  -4203  -4191  -4193  -4196  -4207  -4246  -4280  -4296  -4294  -4288  -4284  -4272  -4252  -4252  -4247  -4247  -4246  -4244  -4238  -4221  -4201  -4197  -4168  -4130  -4105  -4076  -4048  -4002  -3993  -3929  -3860  -3803  -3745  -3688  -3650  -3595  -3489  -3399  -3210  -3022  -3092  -3009  -3004  -2820  -2812  -2980  -2812  -2308  -2008  -1614  -1219  -1003   -611   -465   -206    -12    134    212    315    511    503    326    378    604    911    899   1023   1314    867    555    461    251     90     33     23     19     23     30     52     23     26     29     81    167    372    401    565    753    958   1127   1298   1494   1688   1900   1992   2032   2135   1936   1945   2232   2515   2220   1574   1930   1713   1369   1428   1383   1419   1325   1303   1304   1357   1237   1219   1231   1248   1264   1222   1394   1307   1325   1395   1521   1507   1673   2024   2348   2098   1854   1894   2061   1820   2124   2698   2047   1720   1739   1999   1996   2028   2380   2490   2101   1935   1988   2192   1946   1860   1862   2014   2035   1953   2259   2397   2273   1982   1935   2219   2216   2102   1980   2136   2627   2926   2591   1713   1755   2376   2936   2590   1676   1484   1485   1602   1828   1651   1415   1374   1988   1856   1633   1528   1478   1421   1389   1391   1388   1394   1402   1429   1579   2045   2298   1682   1918   1812   1664   2123   1868   1738   2361   3019   2892   2352   2457   2230   1943   1737   1777   1824   1858   1879   1717   1551   1456   1677   1756   1654   1546   2023   2456   2456   2635   2516   2278   2408   2197   1914   1799   1698   1576   1543   1456   1437   1472   1529   1680   2056   2004   1903   1614   1587   1894   2244   2229   2273   2440   2355   2443   2463   2694   3007   2570   2516   2842   2483   2384   2516   3116   3225   2986   3351   3437   3144   3231   3578   3662   3342   3164   2939   2872   2857   3071   3227   3160   2830   2509   2118   2437   2283   1970   2047   2059   2048   2065   2036   2034   1930   1837   1875   1821   1779   1758   1727   1695   1662   1674   1694   1677   1640   1598   1561   1523   1483   1446   1437   1403   1372   1348   1320   1298   1290   1269   1252   1222   1198   1186   1158   1137   1130   1107   1084   1067   1047   1025   1004    989    972    953    932    914    892    871    849    835    819    816    795    784    761    728    698    696    686    663    647    630    631    625    623    610    622    595    589    549    540    537    517    503    525    474    448    447    457    461    450    405    422    428    429
-4511  -4591  -4593  -4595  -4597  -4538  -4508  -4598  -4597  -4596  -4595  -4595  -4522  -4504  -4512  -4552  -4553  -4564  -4534  -4513  -4563  -4562  -4471  -4463  -4441  -4446  -4461  -4497  -4498  -4502  -4507  -4518  -4525  -4533  -4552  -4552  -4553  -4551  -4551  -4549  -4546  -4550  -4553  -4453  -4407  -4423  -4434  -4401  -4379  -4377  -4376  -4370  -4351  -4312  -4266  -4232  -4220  -4220  -4191  -4208  -4220  -4284  -4301  -4297  -4296  -4295  -4293  -4276  -4258  -4256  -4260  -4256  -4248  -4238  -4223  -4202  -4190  -4172  -4134  -4107  -4074  -4044  -4001  -3962  -3912  -3859  -3798  -3744  -3686  -3653  -3587  -3514  -3400  -3391  -3200  -3010  -3000  -2992  -2803  -2794  -2692  -2658  -2296  -2000  -1609  -1216  -1002   -610   -344   -198    -13    213    278    442    540    606    558    525    799    786    762   1455   1314    636    389    437    189     87     31     25     23     20     21     23     25     30     44    110    276    514    626    613    737    955   1157   1178   1460   1847   2045   2160   2323   2165   1917   1778   1914   2570   2252   1610   1658   1891   1838   1538   1390   1430   1280   1300   1360   1356   1218   1217   1210   1223   1251   1439   1569   1419   1332   1418   1836   1719   1622   2208   2368   2077   1881   1862   1973   1789   1817   2251   2386   1839   1736   1794   1953   2064   2338   2615   2087   1909   1952   2239   2263   2063   1955   1841   2035   1926   2017   2263   2153   1980   1982   2246   2229   2088   2074   2008   2319   2919   2346   1702   1722   2431   2449   2240   1625   1476   1475   1618   1718   1458   1356   1350   1689   2147   1746   1535   1600   1496   1421   1396   1392   1414   1434   1440   1497   1850   2255   1668   1569   1580   1826   2288   2023   1661   1852   2672   3085   2640   2824   2523   2071   1841   1771   1712   1690   1697   1673   1576   1567   1998   2085   1826   1607   1935   2442   2442   2520   2427   2309   2384   2327   2166   2106   2050   1864   1711   1599   1601   1642   1849   2252   2321   2150   1930   1734   1732   1683   1982   2837   3039   2701   2266   2093   2549   2677   2789   2434   2028   2224   2295   2519   2713   2754   2806   3003   3428   3335   3361   3329   3444   3736   3587   3434   3062   2918   3084   3326   3109   2627   2362   2276   2191   2209   2101   1870   1944   1941   1965   1994   1990   1832   1906   1791   1851   1796   1748   1708   1697   1739   1739   1716   1683   1651   1608   1581   1547   1513   1477   1427   1403   1374   1350   1336   1317   1275   1267   1250   1234   1218   1198   1171   1147   1131   1113   1098   1083   1064   1038   1013    993    982    963    945    928    918    901    886    863    843    811    779    758    734    719    710    684    655    638    613    598    591    593    588    572    564    568    557    535    531    512    492    499    476    486    472    465    453    445    420    418    429    469    467    460
-4285  -4180  -4048  -4411  -4414  -4505  -4506  -4596  -4596  -4536  -4415  -4595  -4585  -4557  -4563  -4565  -4567  -4568  -4566  -4567  -4563  -4551  -4510  -4495  -4496  -4499  -4501  -4503  -4525  -4527  -4531  -4536  -4543  -4549  -4550  -4567  -4568  -4568  -4567  -4566  -4565  -4563  -4548  -4555  -4446  -4429  -4396  -4404  -4402  -4402  -4402  -4402  -4382  -4350  -4321  -4292  -4265  -4246  -4219  -4222  -4260  -4308  -4310  -4300  -4300  -4303  -4310  -4307  -4293  -4281  -4276  -4268  -4255  -4249  -4232  -4213  -4200  -4179  -4149  -4110  -4081  -4046  -4001  -3952  -3899  -3857  -3787  -3732  -3663  -3645  -3586  -3525  -3450  -3389  -3210  -3109  -2942  -2795  -2784  -2594  -2468  -2032  -2015  -1992  -1964  -1428  -1000   -849   -404   -206    -81    251    257    429    543    617    589    769   1178    764    892   1320   1399    739    371    381    159     76     39     27     25     24     25     27     33     49     76    215    485    686    813    713    908   1139   1271   1366   1657   1906   2040   2218   2263   2123   1953   1808   1964   2163   1904   1416   1486   1636   1751   1873   1725   1689   1391   1357   1284   1239   1217   1216   1208   1209   1219   1442   1679   1854   1420   1369   1789   1986   1865   1877   1927   2259   1936   1893   2081   1815   1749   1868   2322   2083   1855   2060   1951   1929   1978   2097   1957   1881   1968   2297   2318   2301   2222   1845   1858   1859   1946   2119   2143   2080   2112   2186   2365   2289   1967   1886   2144   2717   2121   1703   1781   2584   2237   1917   1639   1494   1525   1793   1813   1505   1408   1358   1653   1946   1611   1589   1725   1548   1438   1388   1397   1398   1435   1441   1454   1553   1952   1687   1530   1591   1789   2261   2265   1740   1729   2018   2710   3015   2826   2632   2586   2017   1820   1711   1657   1639   1643   1648   1929   2364   2348   2357   1739   2131   2338   2338   2369   2275   2160   2187   2272   2331   2410   2399   2323   2077   1961   1949   1874   2100   2271   2303   2196   1988   1914   2516   2067   1686   1925   2049   2163   1858   1928   2203   2440   2663   2018   2097   2248   2666   3044   3090   3109   3093   3339   3518   3504   3022   3231   3499   3509   3180   3486   3420   3170   3127   3096   2805   2623   2328   2475   2318   2028   1791   1834   1928   1867   1927   1956   1924   1889   1843   1745   1816   1744   1708   1639   1687   1638   1656   1695   1658   1624   1581   1549   1522   1497   1457   1425   1404   1382   1342   1295   1260   1260   1233   1223   1218   1201   1191   1166   1142   1126   1097   1077   1072   1060   1036   1019    994    969    959    944    922    908    893    873    854    839    822    787    769    748    733    755    722    700    671    655    650    613    590    567    550    539    532    529    513    501    491    483    462    457    461    453    447    435    429    456    473    477    472    484    455
-4405  -4286  -4409  -4411  -4593  -4594  -4542  -4564  -4595  -4570  -4594  -4593  -4574  -4568  -4523  -4517  -4548  -4584  -4587  -4588  -4558  -4519  -4503  -4507  -4527  -4542  -4544  -4549  -4547  -4547  -4545  -4550  -4550  -4555  -4560  -4564  -4566  -4566  -4563  -4559  -4554  -4549  -4550  -4540  -4557  -4412  -4410  -4408  -4407  -4407  -4407  -4441  -4403  -4398  -4383  -4351  -4339  -4320  -4305  -4305  -4326  -4341  -4331  -4307  -4303  -4288  -4292  -4293  -4293  -4291  -4288  -4279  -4271  -4256  -4249  -4220  -4201  -4184  -4164  -4132  -4097  -4045  -4000  -3906  -3844  -3816  -3784  -3689  -3642  -3611  -3586  -3504  -3384  -3347  -3184  -2913  -2847  -2592  -2580  -2571  -2191  -2015  -1642  -1885  -1595  -1205  -1084   -725   -341   -161     -9    -10    564    676    634    660    789   1120   1016   1491   1219   1262   1354    736    315    288    158     73     47     38     28     30     30     35     40     71    170    285    393    664    888   1019   1025   1215   1290   1384   1638   1766   1977   2207   1880   1912   2089   2032   1900   1748   1603   1410   1414   1530   1553   1473   1750   1535   1421   1389   1254   1228   1219   1200   1209   1179   1187   1223   1490   2097   1598   1155   1361   2239   2209   1622   1750   1760   1921   1937   2023   1927   1807   1781   2156   2072   2021   2295   2201   1943   1895   1892   1868   1869   1906   2098   1928   1970   2217   2115   1789   1799   1947   1940   1938   2092   2197   2014   1971   2178   1839   1870   2238   2601   1960   1725   1765   2093   2142   1966   1771   1528   1506   1739   1764   1551   1469   1371   1634   1680   1561   1678   1764   1653   1415   1425   1394   1403   1437   1451   1455   1504   1675   1586   1569   1647   1639   2087   2341   1751   1758   1811   2246   2927   2746   2776   2465   2022   1808   1694   1664   1722   1725   1736   2131   2655   2690   2187   1700   2232   2319   2319   2249   2159   2123   2107   2110   2192   2249   2224   2268   2425   2164   2177   2124   2188   2396   2313   2179   2453   2281   2505   2190   2422   2326   1919   1719   1711   1767   1885   1999   2176   2072   2462   2644   2553   2615   2681   2728   2797   3152   3267   3069   2910   3260   3338   3210   2941   3189   3560   3490   3324   3609   3107   2933   2700   2528   2179   1836   1683   1775   1810   1786   1868   1860   1860   1712   1778   1710   1707   1670   1640   1652   1623   1554   1561   1616   1635   1587   1565   1539   1500   1470   1446   1426   1390   1355   1331   1300   1255   1238   1202   1200   1189   1174   1157   1148   1131   1113   1094   1068   1052   1036   1034   1014    995    974    959    934    914    905    881    866    856    835    805    774    751    732    718    730    721    713    695    684    660    634    611    594    586    580    566    547    545    518    502    488    483    471    465    464    459    464    454    472    463    454    433    440    432
-4408  -4410  -4352  -4323  -4593  -4532  -4502  -4532  -4592  -4591  -4583  -4552  -4544  -4566  -4415  -4433  -4538  -4562  -4545  -4502  -4494  -4514  -4507  -4506  -4521  -4561  -4577  -4579  -4566  -4555  -4551  -4550  -4553  -4558  -4565  -4574  -4578  -4575  -4572  -4571  -4568  -4564  -4563  -4569  -4561  -4560  -4559  -4557  -4494  -4489  -4499  -4497  -4497  -4492  -4428  -4396  -4396  -4395  -4397  -4398  -4365  -4377  -4372  -4347  -4321  -4310  -4319  -4310  -4305  -4304  -4307  -4304  -4301  -4269  -4251  -4250  -4203  -4201  -4177  -4146  -4100  -4045  -4000  -3815  -3807  -3798  -3653  -3598  -3587  -3590  -3405  -3442  -3370  -3278  -3094  -2843  -2530  -2154  -2193  -2006  -2002  -1816  -1914  -1967  -1702  -1433  -1057   -598   -216   -119     -4    459    636    618    614    807    910    643    983   1611   1372   1468   1211    603    269    263    168     87     55     48     39     34     40     49     62    110    347    467    669    696   1115   1208   1315   1434   1601   1446   1890   1968   2065   1822   1523   1799   1804   2176   1822   1823   1600   1576   1402   1650   1828   1832   1438   1282   1273   1243   1383   1241   1209   1203   1186   1181   1176   1180   1199   1547   1689   1083   1158   1767   2033   2024   1594   1564   1753   2213   1984   1959   1752   1810   2159   2325   2013   2025   2270   2238   1915   1887   1871   1910   1869   1977   1864   1822   2067   2174   1796   2073   1988   1863   1895   2191   2105   1914   1910   2293   2068   1845   2170   2562   1959   1781   1890   1973   2167   2279   1987   1687   1494   1611   1647   1749   1648   1552   1450   1440   1490   1685   1644   1503   1452   1492   1428   1405   1441   1469   1502   1649   1862   1651   1691   1783   1615   2019   2490   1857   2040   1867   2288   2814   2791   2704   2247   1982   1798   1794   1808   1820   1899   2249   2584   2811   2571   2316   1850   1938   2137   2137   2134   1988   2029   1891   2033   2007   1992   2073   2245   2380   2311   2402   2383   2440   2540   2480   2414   2403   2516   2480   2332   2440   2599   2240   1910   2023   2057   2065   2368   2632   2869   2663   2250   2231   2063   2160   2181   2557   2456   2602   2701   2902   3046   3458   3290   2439   3223   3459   3726   3561   3584   2979   2606   2427   2280   2045   1737   1649   1666   1709   1739   1782   1791   1800   1774   1719   1689   1641   1614   1604   1617   1591   1519   1510   1548   1567   1578   1563   1531   1499   1468   1414   1400   1367   1347   1324   1296   1267   1245   1203   1173   1148   1123   1109   1106   1116   1106   1086   1063   1050   1027   1008    994    980    972    948    923    902    885    880    858    828    821    804    777    750    714    695    693    678    661    653    640    629    616    608    594    550    541    533    517    511    511    529    523    511    501    471    480    486    470    459    456    442    434    428    433    414
-4590  -4593  -4414  -4534  -4592  -4410  -4475  -4407  -4491  -4521  -4498  -4474  -4466  -4466  -4571  -4573  -4556  -4578  -4511  -4414  -4416  -4543  -4563  -4507  -4506  -4541  -4571  -4579  -4556  -4551  -4546  -4516  -4489  -4461  -4503  -4597  -4598  -4598  -4599  -4599  -4597  -4578  -4580  -4589  -4601  -4610  -4602  -4564  -4561  -4562  -4560  -4557  -4542  -4508  -4494  -4094  -4223  -4344  -4426  -4406  -4406  -4365  -4359  -4343  -4337  -4346  -4346  -4357  -4401  -4400  -4353  -4346  -4304  -4302  -4267  -4253  -4230  -4203  -4200  -4156  -4106  -4049  -4002  -3816  -3774  -3617  -3605  -3536  -3519  -3400  -3393  -3382  -3315  -3166  -2962  -2541  -2044  -1637  -1626  -1620  -1618  -1614  -1606  -1948  -1564  -1118   -852   -409   -209    -89    -10    665    686    717    603    636    555    632   1180   1254   1622   1421    777    699    293    254    186    100     75     60     48     41     51     75    173    321    443    561    734    918   1137   1458   1575   1576   1761   1857   1979   1835   1660   1613   1508   1497   1600   1907   1623   1705   1609   1594   1505   1646   1651   2077   1498   1326   1590   1420   1333   1340   1258   1211   1181   1178   1180   1180   1181   1341   1606   1073   1029   1118   1426   1975   1987   1624   1650   1950   1794   1972   1792   1783   2030   2514   2038   1838   1794   2202   2056   1927   1943   1935   1944   1955   1802   1794   1980   2062   1801   2299   2069   1876   1864   2337   2023   1914   2039   2345   2475   1814   2036   2535   1928   1879   1861   2055   2451   2192   2252   2346   1678   1446   1442   1556   1545   1893   1457   1356   1531   1768   1608   1602   1561   1477   1422   1450   1491   1521   1572   1614   1618   1752   1764   1717   1538   1873   2090   2178   2142   1983   2467   2698   2697   2646   2540   2351   2071   2253   2247   2237   2405   2578   2706   2461   2236   2109   1861   1691   1875   1875   1887   1868   1794   1787   1958   1839   1881   1998   2177   2008   2055   2265   2164   2281   2412   2510   2470   2379   2330   2334   2356   2428   2375   2358   2454   2260   2468   2607   3104   3247   3203   3024   2534   2148   2269   2439   2492   2334   2543   2993   2945   3152   3544   3284   2832   3252   3500   3558   3495   3145   3028   2794   2710   2347   2210   1969   1747   1634   1622   1658   1679   1704   1725   1734   1718   1678   1647   1590   1562   1570   1554   1525   1506   1470   1499   1502   1522   1531   1523   1494   1468   1462   1396   1365   1332   1302   1269   1266   1252   1222   1208   1187   1146   1105   1073   1062   1066   1067   1069   1056   1033   1010    988    957    951    947    920    888    866    845    841    850    826    800    771    757    748    734    744    711    698    681    652    639    610    591    571    552    543    536    525    519    532    547    530    517    528    504    523    527    484    463    444    460    445    468    449    440
-4557  -4508  -4533  -4562  -4588  -4585  -4402  -4402  -4422  -4440  -4408  -4409  -4415  -4414  -4410  -4570  -4569  -4546  -4558  -4410  -4502  -4594  -4595  -4594  -4504  -4505  -4556  -4552  -4551  -4595  -4602  -4566  -4414  -4416  -4418  -4600  -4601  -4603  -4604  -4603  -4602  -4606  -4602  -4614  -4622  -4639  -4629  -4611  -4580  -4570  -4569  -4567  -4556  -4557  -4538  -4441  -4172  -4413  -4465  -4506  -4484  -4416  -4414  -4425  -4449  -4448  -4435  -4422  -4410  -4408  -4397  -4402  -4373  -4308  -4306  -4258  -4254  -4232  -4200  -4179  -4142  -4099  -3975  -3819  -3763  -3739  -3614  -3532  -3504  -3389  -3195  -3179  -3040  -3048  -2693  -2189  -1988  -1611  -1462  -1397  -1440  -1590  -1582  -1566  -1183   -889   -597   -217   -134     -4    -10    606    648    776    653    666    451    682    925   1228   1347   1141   1185    643    249    234    160    113     86     66     47     46     62    167    364    486    714    834   1088   1355   1486   1421   1411   1601   1853   1783   1666   1547   1548   1639   1518   1490   1521   1606   1547   1921   1761   1636   1415   1417   1797   1970   1327   1371   1573   1666   1297   1383   1319   1226   1173   1170   1173   1174   1176   1190   1638   1452   1084   1036   1129   1403   1720   1697   1833   1726   1647   1840   1996   1771   1928   2174   2319   1971   1729   1932   2223   2027   2293   2184   2143   1958   1792   1782   1890   2195   1785   1896   2153   1964   1855   2009   1932   1974   2365   2111   2100   1817   1983   2309   2007   2130   1789   1781   2047   2259   2427   2794   2353   1542   1401   1403   1412   1742   1334   1350   1551   1825   1565   1663   1790   1609   1448   1565   1606   1650   1749   1791   1669   1871   1878   1878   1535   2385   2320   2354   2119   1946   2474   2623   2521   2470   2486   2421   2291   2306   2409   2466   2412   2316   2220   2173   1982   1860   1760   1637   1549   1549   1692   1766   1721   1839   1821   1755   1805   1828   1875   1878   1860   2145   2002   2047   2052   2362   2263   2106   2081   2079   2161   2220   2316   2625   2816   2786   2788   2896   3168   3218   3182   2925   2588   2284   2238   2864   2859   2579   2504   2693   3014   3406   3180   2746   2775   3041   3346   3548   3389   3279   2910   2716   2608   2590   2202   1806   1669   1622   1585   1598   1629   1659   1661   1661   1647   1630   1600   1548   1532   1522   1554   1509   1478   1453   1453   1459   1478   1489   1504   1473   1435   1405   1386   1363   1337   1304   1275   1257   1229   1188   1168   1158   1154   1128   1097   1062   1019   1040   1065   1053   1041   1014    983    944    916    902    908    907    887    852    821    815    820    815    801    769    747    730    716    721    720    704    689    668    628    608    597    582    577    556    554    543    552    572    550    555    543    535    538    549    539    488    463    463    456    470    463    478
-4609  -4597  -4628  -4584  -4545  -4397  -4367  -4334  -4372  -4376  -4347  -4333  -4340  -4375  -4433  -4405  -4501  -4510  -4478  -4470  -4488  -4556  -4586  -4526  -4493  -4499  -4500  -4500  -4566  -4587  -4574  -4578  -4592  -4528  -4573  -4601  -4583  -4405  -4376  -4426  -4596  -4647  -4591  -4596  -4607  -4614  -4647  -4611  -4562  -4537  -4532  -4540  -4558  -4571  -4561  -4551  -4508  -4509  -4532  -4512  -4512  -4511  -4509  -4508  -4523  -4517  -4418  -4492  -4466  -4412  -4409  -4438  -4429  -4356  -4309  -4304  -4255  -4236  -4197  -4194  -4188  -4100  -4006  -3819  -3798  -3780  -3711  -3567  -3521  -3375  -3123  -2972  -2589  -2387  -2162  -1875  -1785  -1590  -1399  -1212  -1208  -1204  -1196  -1181  -1101   -840   -401   -205    -10    -10    518    787    883    578    887    817    829    952   1023   1600   1309   1268   1076    470    280    222    171    123     87     64     55     65    135    377    559    747    900   1191   1033   1415   1653   1638   1531   1591   1441   1444   1506   1902   1775   1765   1754   1889   1738   1828   1524   1578   1619   1736   1408   1437   1445   1208   1106   1383   1522   1516   1332   1406   1274   1186   1237   1246   1175   1175   1178   1183   1361   1866   1566   1034   1049   1111   1289   1427   1476   1606   1590   1779   1871   1731   1768   1821   2044   1860   1728   1706   2186   2112   2255   2480   2107   2052   1776   1766   1880   2302   1853   1903   2186   2041   1889   2121   1998   1928   2218   2127   1866   1797   2020   2278   2017   2348   2033   1729   1813   1871   1885   2160   2698   1661   1348   1321   1322   1426   1311   1355   1411   1584   1502   1442   1537   1525   1697   1632   1688   1955   2099   1971   1755   1893   1868   1594   1548   2129   2564   2199   1903   2280   2406   2580   2359   2523   2351   2515   2668   2560   2663   2626   2496   2496   2450   2256   2117   2021   1931   1736   1536   1536   1654   1649   1648   1682   1661   1734   1679   1759   1782   1960   1960   1958   1963   1871   2265   2238   2081   2021   1969   2136   2249   2308   2309   2512   2528   2588   2702   2743   2963   3071   3121   3152   3299   2719   2325   2205   2233   2339   2392   2790   2808   2800   2576   2907   2783   2968   3325   3127   3395   3357   3110   2916   2772   2590   2252   1815   1695   1637   1597   1559   1583   1612   1613   1618   1594   1585   1569   1535   1498   1490   1514   1516   1455   1428   1408   1419   1426   1451   1474   1462   1426   1395   1367   1348   1326   1295   1269   1252   1226   1199   1162   1112   1096   1114   1103   1071   1035    987   1021   1018   1027   1013    992    958    933    913    883    861    860    846    842    819    788    783    797    776    766    758    743    745    705    687    685    683    643    661    643    639    618    598    600    575    579    607    599    586    559    549    521    530    523    516    482    474    468    496    486    497
-4569  -4573  -4575  -4538  -4390  -4327  -4245  -4251  -4291  -4314  -4313  -4305  -4317  -4357  -4390  -4392  -4391  -4390  -4389  -4389  -4389  -4390  -4390  -4391  -4392  -4454  -4459  -4485  -4506  -4573  -4546  -4569  -4582  -4586  -4576  -4559  -4599  -4511  -4512  -4548  -4587  -4573  -4566  -4553  -4600  -4599  -4597  -4574  -4473  -4443  -4439  -4455  -4484  -4548  -4596  -4559  -4539  -4510  -4505  -4506  -4556  -4589  -4596  -4499  -4499  -4499  -4499  -4568  -4495  -4405  -4403  -4453  -4413  -4364  -4306  -4302  -4312  -4231  -4187  -4185  -4185  -4093  -4000  -3813  -3804  -3836  -3757  -3580  -3440  -3278  -2890  -2405  -2201  -2059  -1692  -1603  -1588  -1574  -1203  -1104  -1007  -1001  -1027   -977   -899   -582   -206    -12    368    371    560    777    720    519    581    815   1034   1454   1305   1604   1404   1580   1424    606    287    229    175    123     90     69     72    112    336    603    879    934   1237   1585   1582   1194   1764   1650   1254   1172   1236   1736   1900   2027   1775   1755   1824   2086   1875   1896   1441   1505   1650   1770   2032   1369   1162   1351   1246   1296   1594   1542   1437   1450   1423   1359   1247   1199   1237   1236   1182   1186   1237   1474   1844   1540   1176   1073   1136   1307   1745   1540   1526   1610   1699   1749   1627   1646   1839   1851   1809   1719   1891   2118   1904   1947   1951   2004   1778   1759   1956   2144   1850   2012   2351   2091   2176   1981   2106   1976   1950   2141   2361   1808   1825   2283   2129   2254   2280   1815   1788   1772   1738   1851   2506   1661   1329   1302   1299   1296   1295   1301   1455   1630   1423   1373   1401   1642   2170   1887   2177   2226   2076   1954   1913   2024   1809   1440   1419   1616   2146   2452   1888   1919   2001   2030   2102   2401   2444   2592   2381   2379   2541   2502   2460   2386   2318   2183   2044   1947   1799   1618   1491   1491   1501   1546   1552   1560   1571   1566   1597   1615   1697   1894   1789   1817   1794   1913   2310   2217   2021   1960   1948   2045   2078   2263   2120   2305   2213   2283   2422   2644   3006   3094   3239   3304   3325   2976   2650   2751   2548   2374   2601   2287   2631   2426   2659   2537   2599   2872   2956   2679   2672   3253   3181   2765   2532   2344   1999   1704   1648   1609   1582   1550   1541   1563   1573   1574   1544   1540   1523   1520   1479   1460   1479   1471   1436   1399   1381   1377   1400   1434   1471   1439   1407   1376   1349   1339   1315   1282   1247   1227   1205   1200   1184   1161   1098   1054   1075   1058   1032   1005    966    964    977    974    970    962    950    912    897    883    867    846    809    808    806    784    760    749    743    730    731    723    713    701    678    650    659    655    655    655    647    635    631    610    627    610    604    589    573    562    550    544    523    504    490    472    486    507    494    472
-4569  -4573  -4575  -4538  -4390  -4327  -4245  -4251  -4291  -4314  -4313  -4305  -4317  -4357  -4390  -4392  -4391  -4390  -4389  -4389  -4389  -4390  -4390  -4391  -4392  -4454  -4459  -4485  -4506  -4573  -4546  -4569  -4582  -4586  -4576  -4559  -4599  -4511  -4512  -4548  -4587  -4573  -4566  -4553  -4600  -4599  -4597  -4574  -4473  -4443  -4439  -4455  -4484  -4548  -4596  -4559  -4539  -4510  -4505  -4506  -4556  -4589  -4596  -4499  -4499  -4499  -4499  -4568  -4495  -4405  -4403  -4453  -4413  -4364  -4306  -4302  -4312  -4231  -4187  -4185  -4185  -4093  -4000  -3813  -3804  -3836  -3757  -3580  -3440  -3278  -2890  -2405  -2201  -2059  -1692  -1603  -1588  -1574  -1203  -1104  -1007  -1001  -1027   -977   -899   -582   -206    -12    368    371    560    777    720    519    581    815   1034   1454   1305   1604   1404   1580   1424    606    287    229    175    123     90     69     72    112    336    603    879    934   1237   1585   1582   1194   1764   1650   1254   1172   1236   1736   1900   2027   1775   1755   1824   2086   1875   1896   1441   1505   1650   1770   2032   1369   1162   1351   1246   1296   1594   1542   1437   1450   1423   1359   1247   1199   1237   1236   1182   1186   1237   1474   1844   1540   1176   1073   1136   1307   1745   1540   1526   1610   1699   1749   1627   1646   1839   1851   1809   1719   1891   2118   1904   1947   1951   2004   1778   1759   1956   2144   1850   2012   2351   2091   2176   1981   2106   1976   1950   2141   2361   1808   1825   2283   2129   2254   2280   1815   1788   1772   1738   1851   2506   1661   1329   1302   1299   1296   1295   1301   1455   1630   1423   1373   1401   1642   2170   1887   2177   2226   2076   1954   1913   2024   1809   1440   1419   1616   2146   2452   1888   1919   2001   2030   2102   2401   2444   2592   2381   2379   2541   2502   2460   2386   2318   2183   2044   1947   1799   1618   1491   1491   1501   1546   1552   1560   1571   1566   1597   1615   1697   1894   1789   1817   1794   1913   2310   2217   2021   1960   1948   2045   2078   2263   2120   2305   2213   2283   2422   2644   3006   3094   3239   3304   3325   2976   2650   2751   2548   2374   2601   2287   2631   2426   2659   2537   2599   2872   2956   2679   2672   3253   3181   2765   2532   2344   1999   1704   1648   1609   1582   1550   1541   1563   1573   1574   1544   1540   1523   1520   1479   1460   1479   1471   1436   1399   1381   1377   1400   1434   1471   1439   1407   1376   1349   1339   1315   1282   1247   1227   1205   1200   1184   1161   1098   1054   1075   1058   1032   1005    966    964    977    974    970    962    950    912    897    883    867    846    809    808    806    784    760    749    743    730    731    723    713    701    678    650    659    655    655    655    647    635    631    610    627    610    604    589    573    562    550    544    523    504    490    472    486    507    494    472
-4301  -4310  -4347  -4382  -4197  -4192  -4208  -4175  -4188  -4189  -4189  -4188  -4188  -4189  -4190  -4239  -4370  -4279  -4188  -4187  -4187  -4187  -4187  -4187  -4278  -4297  -4325  -4310  -4310  -4334  -4465  -4519  -4514  -4583  -4573  -4510  -4509  -4561  -4584  -4589  -4576  -4543  -4545  -4578  -4571  -4578  -4578  -4626  -4587  -4570  -4568  -4578  -4597  -4640  -4542  -4543  -4570  -4566  -4525  -4562  -4480  -4453  -4447  -4471  -4471  -4471  -4471  -4471  -4543  -4454  -4382  -4383  -4465  -4356  -4294  -4290  -4289  -4200  -4104  -4113  -4168  -4077  -3983  -3797  -3786  -3773  -3547  -3377  -3294  -3082  -2540  -2093  -1999  -1620  -1604  -1231  -1218  -1206  -1149  -1002   -854   -770   -707   -595   -437   -206    -73     -1    352    301    491    596    361    727    878    746   1149   1444   1619   1824   1805   1562   1218    491    300    217    169    119     94     71    108    258    450    649    923   1112   1451   1784   1883   1462   1131   1337   1292   1268   1602   1554   1433   1712   1753   1800   1906   1980   1841   1380   1609   1667   1727   2059   1657   1182   1158   1508   1228   1367   1716   1675   1537   1311   1297   1573   1427   1193   1188   1259   1442   1245   1243   1314   1431   1734   1763   1191   1091   1183   1726   1570   1520   1519   1505   1706   1871   1574   1843   1908   2117   1741   1826   1972   1870   1758   1788   1959   1952   1748   2017   1950   1829   2103   2024   1861   2052   2112   2023   2035   1915   2017   2599   1974   1793   1925   2026   2164   2027   1819   1964   1833   1680   1660   2108   1647   1354   1304   1301   1301   1305   1314   1357   1326   1328   1354   1388   1544   1755   1843   1994   1767   1811   1731   1972   1836   1654   1419   1431   1534   1455   1844   1947   1785   2073   2262   2530   2677   2715   2751   2530   2267   2384   2310   2202   2146   1997   1897   1880   1768   1639   1560   1508   1508   1470   1460   1467   1472   1471   1522   1553   1633   1703   1695   1700   1708   1721   1904   2043   2278   2043   1939   1929   1971   1967   1929   1979   1983   2032   2226   2483   2519   2568   2877   2918   3254   3370   3146   2819   2662   2578   2689   2758   2844   2539   2299   2323   2390   2484   2730   2564   2651   2895   3213   3516   3006   2561   2188   1786   1589   1577   1554   1555   1527   1526   1535   1529   1543   1497   1489   1500   1479   1465   1440   1451   1419   1377   1365   1351   1355   1381   1430   1440   1426   1392   1362   1341   1316   1290   1257   1236   1211   1190   1159   1150   1145   1112   1051   1012    998    988    977    954    927    942    943    928    934    916    899    868    857    850    858    831    801    783    769    762    756    745    730    726    693    692    685    681    659    635    617    613    615    614    608    608    605    581    558    563    550    553    539    536    522    502    501    505    509    500    498    495    479
-3902  -3941  -3953  -4100  -4095  -4178  -4102  -4083  -3994  -3995  -4023  -3993  -3991  -3990  -3989  -4078  -4048  -4107  -3986  -3985  -3984  -3983  -3982  -3982  -3982  -3982  -3983  -3983  -3983  -4046  -4083  -4186  -4380  -4435  -4527  -4564  -4624  -4560  -4557  -4552  -4482  -4443  -4438  -4352  -4361  -4459  -4462  -4515  -4513  -4512  -4512  -4513  -4515  -4517  -4464  -4465  -4464  -4461  -4457  -4451  -4445  -4352  -4325  -4338  -4331  -4330  -4306  -4344  -4346  -4349  -4353  -4359  -4273  -4276  -4375  -4363  -4216  -4159  -3993  -4135  -4146  -4055  -3962  -3828  -3764  -3569  -3220  -3080  -3059  -2947  -2446  -2084  -1778  -1612  -1361  -1230  -1039  -1026  -1011   -783   -621   -606   -471   -218   -205    -13    437    344    305    290    696    459    535    793    757    955   1139   1442   1621   1629   1341   1196    673    439    280    199    171    119     91     97    216    422    536    754    975   1112   1428   1765   1914   1549   1410   1377   1613   1346   1181   1344   1888   1685   1720   1799   1726   1605   1301   1423   1248   1221   1245   1534   1215   1158   1160   1791   1283   1371   1730   1756   1482   1231   1281   1569   1612   1325   1234   1201   1401   1408   1317   1332   1236   1272   1517   1593   1283   1200   1268   1738   1917   1822   1549   1506   1957   1823   1636   1676   1802   1870   2119   1810   1718   1703   1720   1910   2043   1764   1819   1808   1838   2311   2219   1829   2024   2183   2038   2035   1936   2028   2508   2149   1799   1803   1864   2027   2009   1797   1878   1722   1624   1628   1879   1717   1348   1297   1294   1298   1306   1502   1320   1312   1320   1343   1333   1413   1570   1691   1822   1655   1695   1595   1619   1557   1504   1414   1382   1447   1379   1412   1907   2047   2065   2212   2447   2407   2461   2524   2350   2202   2066   2021   1991   1889   1826   1753   1686   1650   1603   1562   1555   1555   1526   1461   1458   1473   1544   1567   1601   1636   1655   1697   1782   1668   1741   1764   1763   2044   1992   1847   1868   1871   1970   2171   2085   2287   2340   2487   2620   2896   2691   2846   3080   2959   3230   2929   2544   2533   2678   2740   2945   2775   2472   2401   2375   2685   2818   2679   2493   2551   2776   3112   3414   2997   2601   2338   1831   1593   1540   1508   1503   1516   1495   1521   1493   1507   1471   1450   1465   1441   1434   1415   1405   1389   1350   1360   1327   1357   1385   1386   1426   1412   1380   1354   1320   1301   1275   1255   1230   1210   1186   1167   1141   1115   1091   1076   1049   1036   1018   1006    985    963    940    892    883    871    870    865    859    850    824    812    799    796    788    786    771    754    732    713    703    694    682    664    645    641    632    623    627    625    618    609    595    591    576    571    570    554    549    547    546    543    542    542    529    513    496    482    472    465
-3824  -3826  -3826  -4002  -3906  -3810  -3624  -3623  -3623  -3744  -3983  -3981  -3798  -3616  -3434  -3612  -3432  -3431  -3617  -3645  -3672  -3664  -3636  -3614  -3617  -3631  -3621  -3632  -3639  -3688  -3760  -3990  -4065  -4135  -4330  -4471  -4462  -4462  -4385  -4342  -4152  -3962  -3957  -3961  -3970  -3979  -4343  -4345  -4345  -4345  -4345  -4346  -4347  -4378  -4349  -4349  -4349  -4345  -4339  -4331  -4323  -4228  -4224  -4222  -4310  -4189  -4220  -4131  -4075  -4139  -4290  -4262  -4304  -4344  -4344  -4340  -4330  -3992  -3927  -4125  -4125  -4034  -3942  -3653  -3685  -3279  -2990  -2611  -2413  -2457  -2141  -2006  -1631  -1466  -1249  -1241  -1050  -1080   -656   -635   -615   -236   -219   -205    -13    373    347    497    331    304    515    245    647   1060    841    989   1166   1198   1425   1695   1384    763    466    372    270    236    181    132    117    172    301    431    632    836   1077   1263   1459   1664   1881   1518   1416   1420   1240   1620   1636   1545   1805   1700   1826   1644   1243   1217   1218   1222   1223   1226   1327   1305   1369   1206   1227   1864   1283   1248   1698   1771   1570   1188   1233   1492   1789   1441   1262   1215   1396   1606   1517   1860   1306   1233   1365   1655   1327   1580   1453   1620   2035   1788   1695   1500   1723   1945   1678   1615   1516   1558   1999   2006   1956   1712   1651   1700   1988   1942   1857   1743   1786   2102   2642   1848   2023   1999   2139   2293   1989   2137   2352   1895   1803   1944   1950   1992   1861   1814   1943   1789   1717   1625   1799   1458   1303   1294   1292   1294   1301   1309   1308   1311   1313   1328   1391   1487   1490   1644   2114   1681   1579   1565   1590   1577   1477   1679   1441   1368   1370   1640   2347   1920   2189   2449   2456   2368   2460   2269   2102   2021   2075   2003   1861   1777   1761   1727   1630   1601   1583   1550   1525   1525   1497   1483   1466   1498   1568   1636   1684   1727   1761   1804   1831   1767   1825   1720   1746   1747   1775   1866   1820   1961   2196   2212   2365   2421   2296   2186   2265   2515   2448   2642   2649   2707   2792   2613   2443   2571   2581   2941   2980   2693   2245   2445   2659   2720   2975   2844   2753   2618   2853   3448   3384   2816   2479   2167   1825   1624   1554   1510   1497   1464   1489   1514   1469   1448   1466   1437   1420   1425   1397   1387   1368   1347   1327   1333   1310   1352   1341   1359   1390   1402   1386   1353   1320   1293   1265   1250   1234   1216   1200   1177   1158   1134   1100   1074   1058   1048   1026   1008    997    984    984    953    921    915    896    867    829    800    809    785    771    760    753    749    739    737    738    732    725    713    690    679    657    639    658    659    657    655    660    655    644    629    606    603    606    591    580    576    577    568    545    530    520    497    491    481    474    469
-3943  -4005  -4004  -3893  -3754  -3687  -3712  -3680  -3620  -3619  -3618  -3616  -3613  -3611  -3429  -3356  -3203  -3383  -3427  -3366  -3485  -3604  -3331  -3329  -3478  -3357  -3416  -3417  -3418  -3421  -3608  -3500  -3451  -3638  -3595  -3770  -3676  -3501  -3443  -3446  -3226  -3127  -3122  -2927  -3152  -3233  -3418  -3661  -3511  -3512  -3512  -3513  -3365  -3666  -3517  -3518  -3368  -3515  -3509  -3277  -3045  -3039  -2855  -3033  -3427  -3031  -2800  -3033  -2436  -2861  -3497  -3504  -3636  -3927  -3809  -3869  -3823  -3834  -3694  -3606  -3329  -3479  -3387  -3419  -3284  -3051  -2503  -2188  -2101  -1805  -1794  -1662  -1650  -1639  -1632  -1408  -1352  -1334  -1309  -1035   -853   -415   -212    -89     -6    491    549    507    289    322    385    662   1320   1125   1033   1281   1109   1280   1384   1074    947    542    398    312    243    190    187    183    132    215    337    520    709    939   1301   1726   1544   1569   1610   1540   1388   1462   1601   1568   1811   1855   1934   1897   1521   1261   1217   1213   1228   1390   1386   1471   1402   1237   1248   1330   1503   1473   1383   1287   1426   1459   1536   1193   1221   1429   1613   1628   1578   1316   1265   1452   1704   1821   1316   1234   1448   1958   1554   1614   1800   1573   1585   1868   1668   1470   1620   2031   2092   1868   1656   1472   1484   1744   2151   1945   1698   1623   1878   2138   1851   1710   1744   1967   2288   1904   1834   1925   2147   2124   1884   2170   2198   1828   1792   1911   2106   1902   1722   1909   1843   1666   1596   1488   1359   1300   1291   1290   1291   1290   1293   1295   1306   1315   1375   1485   1578   1522   1441   1603   1971   1605   1548   1634   1957   1658   1483   1800   1452   1369   1423   1918   2498   2263   2343   2629   2475   2705   2573   2456   2306   2339   2119   2112   2081   1948   1927   1857   1771   1701   1590   1552   1554   1554   1567   1563   1603   1507   1496   1498   1577   1605   1666   1803   2093   2209   2059   1947   1930   1779   1811   1968   1862   2077   2141   2384   2240   2132   2037   2018   2129   2295   2268   2266   2336   2433   2360   2369   2362   2334   2537   2911   2800   2528   2595   2852   2992   2897   2936   2919   3158   2836   2998   3398   3238   2862   2591   2327   1902   1699   1561   1526   1513   1475   1446   1462   1449   1433   1450   1412   1380   1370   1364   1362   1342   1337   1330   1301   1287   1293   1316   1352   1354   1367   1371   1349   1329   1299   1263   1241   1228   1208   1199   1180   1158   1138   1115   1090   1073   1046   1029   1014   1026   1006   1003    982    966    931    892    857    833    829    833    824    801    775    772    762    742    714    704    690    679    672    665    657    675    678    697    688    683    686    677    665    650    648    635    622    611    608    604    594    575    556    543    521    515    507    500    493    480    475
-4184  -4185  -4185  -4182  -3996  -3990  -3821  -3801  -3800  -3799  -3798  -3676  -3734  -3792  -3792  -3791  -3791  -3792  -3611  -3611  -3490  -3428  -3425  -3459  -3421  -3299  -3329  -3329  -3328  -3239  -3243  -3250  -3256  -3258  -3254  -3245  -3056  -3049  -3043  -3072  -3072  -2750  -2063  -2693  -3204  -3212  -3127  -3159  -3130  -3101  -3131  -3150  -3165  -3167  -3140  -3111  -3141  -3139  -3165  -2800  -2585  -2580  -2186  -2574  -1643  -2184  -2574  -2620  -2577  -2429  -2434  -2589  -2503  -3045  -3045  -3042  -3245  -2129  -2123  -2121  -2120  -2120  -2731  -2728  -2769  -2879  -2699  -2527  -2520  -2424  -2478  -2444  -2307  -2298  -2022  -2149  -2179  -1972  -1939  -1904   -974   -229   -209    -14    512    663    492    255    322    560    682    973   1189   1004   1121   1028   1196   1372   1173   1029    746    474    371    296    222    186    173    158    138    184    265    479    625    917   1373   1724   1748   1764   1727   1629   1726   1719   1696   1683   1718   1558   1512   1312   1280   1275   1302   1260   1386   1859   1711   1616   1437   1182   1197   1723   1706   1264   1394   1672   1471   1353   1456   1401   1334   1350   1403   1618   1897   1548   1343   1301   1978   1715   1283   1308   1373   1907   1582   1447   1248   1700   1411   1465   1583   1429   1484   1842   2382   2035   1856   1536   1448   1498   1618   1956   1777   1614   1914   2193   1889   1737   1700   1843   2333   2191   1812   1825   1865   1892   1957   1903   1983   1870   1772   1809   2051   1794   1712   1871   1808   1548   1392   1321   1310   1298   1294   1289   1287   1290   1292   1291   1304   1312   1560   1706   1468   1401   1488   2073   2073   1590   1571   2055   2515   1980   1586   1508   1383   1405   1841   2462   1950   2032   2090   2392   2787   2754   2702   2725   2499   2542   2127   2413   2200   2136   2060   1970   1911   1820   1694   1671   1639   1639   1657   1657   1629   1708   1561   1483   1543   1799   2128   2283   2327   2367   2346   2265   2063   1947   1932   2014   2071   2056   2071   2122   1961   1914   1974   2033   2062   2143   2186   2285   2196   2289   2180   2181   2196   2176   2323   2868   2869   2651   2788   3011   3202   2931   2911   2920   3307   3089   3402   3301   2751   2494   2437   2434   2071   1708   1556   1504   1497   1517   1476   1440   1423   1410   1404   1405   1413   1397   1373   1349   1368   1404   1366   1373   1328   1286   1264   1272   1300   1320   1339   1342   1322   1296   1267   1242   1218   1201   1182   1171   1160   1137   1113   1095   1073   1043   1024   1006    978   1006    997    965    918    903    879    905    880    864    852    820    819    821    805    794    774    732    732    708    704    710    702    704    711    713    723    713    697    686    673    663    660    652    643    627    606    589    586    579    560    545    538    535    524    515    507    505    494    482
-4092  -4093  -4004  -4092  -4178  -3992  -3987  -3852  -3713  -3789  -3782  -3764  -3761  -3786  -3811  -3818  -3815  -3796  -3796  -3795  -3794  -3792  -3789  -3786  -3784  -3604  -3603  -3602  -3598  -3504  -3472  -3414  -3417  -3418  -3413  -3271  -3219  -3033  -3118  -3202  -3086  -2557  -2104  -3096  -3016  -3086  -3201  -3202  -3039  -3036  -3052  -3145  -2988  -3212  -3146  -3114  -3125  -3138  -3064  -3028  -3207  -3203  -3200  -3198  -3108  -3199  -3199  -3199  -3198  -3199  -3202  -3206  -3209  -3211  -3210  -3208  -3084  -3065  -3062  -3015  -3015  -3015  -3014  -2897  -2892  -2908  -2995  -2801  -2723  -2731  -2738  -2793  -2784  -2596  -2591  -2582  -2564  -2532  -1951  -1610   -496   -347   -133    -14    408    347    265    192    386    506    812    967   1006   1121   1046   1241   1069    947   1154   1326   1031    822    590    337    276    224    188    145    136    221    398    588    803   1023   1297   1781   2307   2192   1937   2100   2117   1925   1764   1722   1757   1906   1651   1561   1519   1357   1531   1417   1398   1517   1589   1680   1305   1186   1180   1375   1728   1269   1368   1689   1526   1388   1394   1441   1536   1672   1383   1423   1603   1541   1406   1323   2025   1687   1313   1361   1593   1981   1731   1505   1793   1919   1443   1420   1448   1438   1431   1494   1868   1873   1967   1669   1452   1519   1651   1659   1830   1610   1927   2061   1959   1830   1663   1774   2349   2680   1965   1814   1826   1846   1853   1855   1945   1972   1889   1755   1739   1712   1756   2265   1903   1595   1385   1291   1290   1290   1289   1286   1291   1293   1299   1348   1306   1315   1585   1792   1401   1347   1614   2594   1997   1631   1590   2042   2519   2043   1759   1543   1546   1602   2348   2357   2072   1779   1933   2239   2722   2792   2732   2595   2489   2460   2598   2777   2353   2360   2218   2223   2138   1998   1909   1836   1775   1775   1836   1949   1813   1650   1607   1608   1730   1720   2177   2203   2059   1997   2032   2060   1999   1858   1817   1903   1900   1939   1911   1980   1894   1889   1926   1958   1984   2012   2099   2029   1990   2008   2124   2081   2075   2226   2284   2977   2938   2651   2600   2703   2761   2657   2761   2943   3117   3327   3333   3422   3432   2893   2472   2405   2063   1729   1611   1516   1497   1464   1452   1437   1427   1431   1432   1459   1431   1427   1418   1423   1460   1427   1429   1406   1393   1346   1293   1250   1253   1293   1358   1374   1338   1304   1275   1256   1231   1208   1187   1165   1152   1127   1109   1096   1062   1035   1014    999    983    972    970    963    922    920    931    909    888    882    869    839    852    835    821    791    762    756    752    731    734    736    733    742    735    738    724    709    695    680    676    667    662    654    636    621    605    593    579    569    562    555    544    538    533    529    518    504    500    491
-3996  -3997  -3999  -3998  -3996  -3992  -3977  -3863  -3804  -3803  -3802  -3800  -3797  -3798  -3789  -3774  -3787  -3794  -3795  -3794  -3793  -3790  -3787  -3785  -3700  -3663  -3627  -3601  -3496  -3429  -3570  -3570  -3573  -3576  -3575  -3391  -3207  -3203  -3199  -3120  -3189  -3004  -3001  -3110  -3103  -3088  -3092  -3108  -3130  -3152  -3130  -3193  -3197  -3165  -3204  -3244  -3276  -3256  -3254  -3199  -3195  -3193  -3179  -3189  -3010  -3070  -3190  -3165  -3156  -3123  -3188  -3193  -3164  -3200  -3200  -3199  -3128  -3093  -3148  -3117  -3102  -3102  -3102  -3102  -3087  -3063  -3005  -2996  -2965  -2955  -2951  -2935  -2859  -2796  -2724  -2704  -2701  -2547  -1961  -1015   -498   -231   -210    -15     -3     73    187    385    682    679    884    942   1194    896   1170   1165    807    885   1121   1043   1066   1379   1104    913    443    266    176    163    162    224    344    639    911   1204   1304   1634   1956   1949   2066   1992   2105   1919   1760   1814   1827   1641   1802   1548   1613   1476   1418   1368   1401   1568   1495   1473   1406   1200   1181   1215   1537   1248   1234   1579   1511   1478   1540   1715   1606   1974   1640   1554   1541   1456   1337   1311   2032   1873   1372   1760   1975   1703   1612   1489   1709   2118   1594   1462   1664   1740   1437   1397   1400   1442   1748   1623   1520   1460   1536   1650   1811   1661   2031   1844   1784   1781   1681   1766   2094   2643   2506   1853   1821   1842   1974   1885   2208   2355   2168   1917   1726   1704   1750   2226   1728   1423   1295   1291   1289   1287   1285   1284   1287   1290   1305   1300   1300   1316   1458   1880   1410   1324   1536   2219   1707   1448   1423   1557   2078   1921   1534   1385   1381   2123   2788   2755   2426   1872   2025   2204   2363   2456   2695   2931   2710   3135   2989   2866   2894   2671   2719   2554   2512   2349   2306   2131   2235   2235   2123   2234   1921   1821   1837   1708   1822   1723   1681   2064   1903   2121   2191   2204   2189   2069   1905   1915   1862   1868   1855   1884   1933   1950   1987   2017   2006   1929   1966   2011   2077   2056   2266   2294   2131   2193   2573   3060   2784   2588   2543   2498   2541   2576   2695   2737   2961   3239   3133   3362   3223   2985   2783   2403   2078   1943   1593   1507   1498   1513   1501   1478   1475   1476   1450   1463   1468   1469   1482   1494   1484   1461   1435   1415   1404   1363   1315   1270   1228   1248   1317   1362   1339   1303   1278   1263   1239   1216   1188   1163   1142   1127   1113   1088   1065   1045   1027   1013    993    981    958    942    962    947    941    938    917    891    912    870    868    847    809    765    783    786    781    762    771    773    770    766    758    740    717    703    686    677    674    665    657    646    633    621    616    599    586    582    569    559    554    541    535    530    519    510    504    494
-3987  -3989  -3907  -3918  -3929  -3928  -3910  -3861  -3809  -3804  -3802  -3800  -3797  -3793  -3790  -3781  -3751  -3715  -3716  -3708  -3693  -3687  -3672  -3599  -3598  -3632  -3659  -3651  -3585  -3471  -3294  -3543  -3548  -3495  -3379  -3139  -3131  -3197  -3051  -3102  -3117  -3126  -3004  -3124  -3089  -3050  -3034  -3064  -3080  -3120  -3093  -3051  -3010  -3013  -3076  -3196  -3196  -3163  -3158  -3186  -3182  -3180  -3178  -3058  -2999  -3090  -3136  -3174  -3080  -3079  -2993  -3031  -3114  -3148  -3149  -3149  -3147  -3145  -3137  -3146  -3147  -3147  -3147  -3102  -3101  -3087  -3059  -3032  -3004  -3002  -2983  -2971  -2924  -2821  -2807  -2617  -2595  -2555  -1606  -1019   -861   -593   -212   -108     -6    204    446    471    621    651    899   1149   1209    640    850    891   1224   1130    972    707    847   1024   1048    806    484    260    216    192    187    238    319    533    795   1174   1654   1799   1674   1501   1724   1728   1799   1797   1885   1819   1849   1575   1601   1747   1701   1569   1792   1576   1565   1640   1591   1443   1590   1270   1270   1207   1171   1239   1216   1458   1467   1558   1581   1673   1489   1620   1564   1504   1677   1679   1323   1267   1400   1531   1378   1482   1840   1529   1389   1552   1671   1836   1674   1530   1995   2091   1634   1393   1384   1397   1812   1732   1538   1462   1567   1713   1677   1728   1934   1873   1663   1672   1659   1747   2143   2723   2869   2116   1834   1873   1881   1793   1904   2016   1885   2280   1864   1704   1714   2110   1735   1409   1300   1304   1285   1281   1281   1282   1284   1287   1291   1308   1307   1320   1481   1775   1405   1298   1350   2010   1520   1323   1308   1355   2095   1853   1512   1364   1352   1775   2625   2697   2653   2177   2075   1829   2341   2583   2772   2951   2964   3137   3009   3269   3044   3212   3018   3198   3030   2762   2949   2752   2881   2881   2663   2654   2512   2262   2033   2018   2246   2212   2202   2238   2084   2309   2060   1983   1968   1982   1907   1825   1867   1996   1910   1928   2008   2028   2054   2102   2104   2014   1975   2027   2070   2174   2522   2260   2196   2425   2845   3247   2957   2541   2493   2500   2521   2552   2607   2650   3232   3077   2921   3176   2980   2569   2596   2322   2189   1821   1564   1540   1563   1578   1552   1521   1513   1514   1499   1489   1503   1520   1501   1494   1486   1446   1429   1419   1393   1357   1305   1289   1246   1214   1248   1308   1334   1305   1278   1259   1232   1207   1185   1166   1150   1131   1109   1084   1065   1053   1040   1019   1011   1002    985    978    974    986    971    967    908    933    920    873    837    822    790    808    814    821    800    799    795    801    784    756    747    727    709    697    683    674    662    655    647    640    634    628    623    611    602    588    574    564    554    544    539    527    519    515    510    497
-3710  -3681  -3803  -3839  -3822  -3840  -3843  -3827  -3813  -3807  -3815  -3798  -3794  -3789  -3784  -3780  -3662  -3628  -3604  -3602  -3600  -3538  -3595  -3592  -3535  -3590  -3595  -3588  -3568  -3545  -3091  -2535  -2541  -2550  -3067  -3010  -3072  -3193  -3159  -3150  -3190  -3189  -3009  -3098  -3105  -3053  -2993  -3036  -3104  -3069  -3180  -3004  -3007  -2770  -3011  -3155  -3009  -3066  -3091  -3056  -3051  -3078  -2987  -2848  -2810  -3111  -3077  -3164  -2978  -2887  -2623  -2992  -3092  -3098  -3100  -3119  -3120  -3123  -3141  -3145  -3147  -3147  -3148  -3148  -3147  -3100  -3098  -3064  -3037  -3007  -3006  -2987  -2951  -2929  -2815  -2743  -2643  -2558  -1969  -1022   -755   -596   -216   -111   -100     -1    211    591    499   1050   1177    978    674   1097   1114   1012    927   1201    725    764    725    796    966    700    902    445    353    365    316    363    478    707   1082   1524   1569   1910   1878   1374   1505   1652   1731   1828   1805   1784   1752   1704   1599   1957   1732   1704   1686   1720   1971   1633   1711   1748   1576   1502   1758   1640   1222   1259   1515   1250   1289   1404   1554   1435   1509   1505   1454   1519   1732   1578   1313   1274   1352   1284   1315   1449   1732   1434   1378   1761   1982   1551   1732   1565   1640   1850   1374   1367   1528   1708   1447   1429   1480   1482   1664   1984   1683   1548   1629   1663   1753   1686   1637   1672   1776   2045   2400   2594   1900   1956   1814   1729   1738   1839   1714   1897   1796   1706   1729   2117   1735   1398   1314   1286   1285   1285   1287   1285   1287   1287   1291   1298   1301   1311   1378   1613   1525   1290   1289   1461   1304   1296   1281   1286   1604   1459   1328   1309   1332   1682   2179   2434   2096   2056   2071   2012   2536   2844   3053   3078   3158   3296   3263   3396   3310   3352   3444   3478   3059   3371   3089   3217   3170   3170   3140   2890   2780   2684   2531   2442   2379   2299   2237   2277   2216   1825   1777   1880   2027   2075   1907   1861   1927   1876   1947   1994   2063   2117   2119   2168   2121   2028   2160   2327   2400   2455   2592   2617   2460   2446   2732   3156   3073   2564   2510   2484   2474   2506   2530   2645   3237   2919   2913   2784   2566   2405   2237   2118   1990   1797   1623   1597   1612   1636   1592   1564   1571   1565   1568   1525   1510   1514   1516   1518   1483   1460   1420   1396   1358   1335   1339   1306   1263   1223   1190   1217   1269   1287   1280   1258   1250   1208   1188   1175   1158   1138   1112   1086   1075   1060   1044   1032   1023   1006    981    986    985    976    963    944    928    942    914    866    856    835    839    852    849    851    832    828    804    791    763    727    711    707    701    697    688    684    671    652    646    632    621    615    611    613    603    595    580    566    557    543    536    527    512    506    496    496
-3643  -3617  -3798  -3797  -3799  -3799  -3799  -3798  -3818  -3836  -3796  -3793  -3789  -3604  -3508  -3594  -3593  -3511  -3595  -3596  -3596  -3415  -3411  -3478  -3421  -3407  -3470  -3581  -3503  -3272  -2686  -1331  -1148  -2392  -3059  -3005  -3111  -3189  -3189  -3189  -3191  -3192  -3085  -3192  -3119  -3087  -3086  -2845  -3118  -2939  -3122  -3095  -3098  -3190  -3119  -3168  -3007  -3002  -2996  -2702  -2624  -2620  -2618  -2619  -2622  -3058  -3037  -2852  -2554  -2251  -2347  -2987  -2998  -3074  -3096  -3097  -3100  -3107  -3118  -3144  -3146  -3148  -3149  -3148  -3148  -3147  -3100  -3099  -3076  -3050  -3037  -3008  -3016  -3011  -2998  -2922  -2864  -2694  -1968  -1024   -629   -601   -221   -168   -104    -40    200    -10    342    896   1085   1003    695    813    783    792   1084    708    971   1336    887    797   1018    863    897    736    385    436    523    464    547    670   1136   1573   1364   1621   1396   1099   1468   1655   1826   1778   1734   1811   1914   1845   1685   1801   1776   1793   1672   1687   1786   1779   1773   1761   1685   1629   1829   1826   1458   1804   1714   1253   1218   1210   1265   1299   1299   1312   1507   1574   1636   1594   1317   1370   1752   1533   1302   1579   1784   1342   1522   2014   1982   1502   1506   1596   1486   1381   1363   1380   1724   1806   1767   1533   1419   1422   1526   1789   1675   1577   1594   1746   1602   1651   1742   1661   1690   1697   1812   2258   2126   2100   1880   1708   1725   1743   1702   1842   1793   1702   1729   2035   1557   1520   1573   1406   1318   1293   1291   1286   1287   1287   1289   1291   1297   1318   1398   1427   1490   1402   1309   1286   1309   1331   1280   1280   1280   1283   1284   1300   1535   1918   2028   2098   2190   2095   1971   2388   2373   2589   2739   2893   3039   3100   3267   3395   3401   3543   3562   3499   3341   3449   3365   3329   3219   3219   3038   2960   2908   2845   2576   2537   2404   2357   2136   2137   1915   1875   2055   1980   2031   2025   1988   1957   2016   1924   1872   1971   2052   2116   2167   2112   2139   2122   2525   2973   2774   2732   2625   2767   2514   2610   2618   2997   3170   2590   2494   2454   2445   2469   2554   2949   2836   2704   3072   3022   2658   2466   2325   2051   1878   1816   1710   1668   1686   1687   1643   1618   1621   1615   1589   1548   1525   1529   1562   1598   1536   1457   1440   1422   1378   1356   1318   1280   1251   1241   1210   1180   1163   1179   1208   1234   1234   1216   1194   1173   1157   1139   1116   1099   1076   1066   1056   1040   1020   1006   1001   1016    997    976    945    945    946    923    902    900    886    860    878    881    881    857    831    784    753    744    739    728    724    725    728    730    702    683    672    668    659    649    628    616    603    594    587    579    582    571    560    553    546    533    522    515    503    488
-3556  -3615  -3794  -3788  -3765  -3793  -3793  -3765  -3786  -3792  -3790  -3787  -3783  -3588  -3437  -3275  -3279  -3529  -3558  -3592  -3594  -3593  -3488  -3442  -3399  -3159  -3279  -3458  -3427  -3367  -3211  -2880  -2537  -3110  -3175  -3181  -3041  -3186  -3141  -3007  -3010  -3039  -3196  -3175  -3140  -3120  -3093  -3094  -2643  -2074  -2826  -3188  -3139  -3103  -3116  -3191  -2962  -3002  -2933  -2867  -2692  -2614  -2610  -2611  -2617  -3091  -3075  -2801  -2343  -2430  -2345  -2715  -2995  -3050  -3071  -3092  -3098  -3093  -3096  -3098  -3101  -3103  -3104  -3149  -3148  -3140  -3147  -3146  -3100  -3100  -3101  -3104  -3086  -3054  -3025  -2975  -2945  -2682  -1666  -1026   -633   -607   -392   -210   -107    -96    -10    228    585    674    978    584    509    729    972   1255   1330    968   1319   1483   1258    837    897   1119   1054    717    458    584    646    611    654    673   1071   1358   1087   1070   1034   1144   1299   1446   1496   1402   1394   1533   1781   1741   1634   1631   1614   1630   1658   1633   1633   1719   1866   1954   1866   1621   1798   1794   1644   1915   1406   1231   1212   1187   1192   1208   1224   1226   1306   1442   1465   1387   1276   1283   1503   1510   1304   1336   1411   1318   1674   2283   1763   1606   1512   1298   1353   1358   1369   1393   1512   1602   1592   1695   1605   1462   1576   1789   1641   1711   1752   1802   1889   1701   1623   1808   1664   1620   1644   1791   2185   2603   1931   1729   1739   1722   1701   1946   1879   1711   1787   1866   1422   1355   1314   1369   1398   1375   1289   1301   1284   1282   1284   1285   1290   1334   1510   1343   1478   1574   1304   1281   1352   1329   1280   1280   1330   1281   1282   1292   1465   2233   2319   2051   2071   2218   1892   2159   2172   2514   2798   2900   2754   2804   3085   3123   3132   3226   3222   3243   3207   3141   3070   2939   2722   2722   2529   2380   2268   2295   2246   2360   2149   1957   1731   1832   2031   2348   2400   2014   1979   2055   2176   2106   2174   2070   1860   1953   2009   2047   2066   2069   2048   2084   2404   2452   2429   2565   2543   2716   2622   2754   2874   3160   3016   2589   2595   2509   2442   2659   3026   2879   2531   2637   2927   2843   2643   2444   2245   2052   2002   1961   1803   1749   1758   1732   1705   1676   1675   1637   1604   1578   1558   1558   1608   1657   1576   1566   1505   1466   1381   1365   1323   1308   1327   1332   1253   1241   1202   1168   1139   1134   1145   1167   1184   1174   1155   1148   1132   1113   1097   1070   1050   1039   1024   1011   1016   1013    990    973    960    967    952    930    924    915    907    900    910    874    851    811    775    765    763    758    750    756    767    753    752    731    713    702    684    672    667    657    644    619    602    589    582    569    560    572    561    554    543    533    527    516    507    494
-3685  -3686  -3716  -3716  -3697  -3691  -3692  -3641  -3647  -3786  -3695  -3736  -3777  -3323  -3409  -3408  -3585  -3585  -3587  -3470  -3352  -3546  -3586  -3524  -3393  -3391  -3390  -3388  -3382  -3314  -3275  -3177  -3172  -3022  -3121  -3178  -3062  -3138  -2733  -3005  -3008  -3073  -3197  -3197  -3157  -3135  -3127  -3048  -3188  -3129  -3010  -3102  -3149  -3151  -3196  -3164  -3188  -3002  -2962  -2986  -2905  -2609  -2603  -2603  -2611  -3070  -3164  -2800  -2733  -2518  -2612  -2982  -2994  -3004  -3050  -3061  -3097  -3095  -3052  -3051  -3096  -3128  -3158  -3104  -3125  -3147  -3150  -3144  -3148  -3149  -3151  -3147  -3110  -3106  -3015  -3077  -2933  -2075  -1385  -1063   -637   -611   -589   -213   -148    -99    -10    412    576    750    847    427    831   1182    842   1141   1603   1348   2013   1717   2029   1308    846    993   1222    652    634    871    678    785    768    761    963   1166   1043    964    951   1066   1091   1128   1244   1557   1680   1663   1759   1813   1822   1743   1624   1802   1949   1799   1718   1835   1913   1723   1608   1490   1539   1704   1928   1745   1369   1307   1515   1201   1195   1246   1208   1210   1250   1391   1483   1510   1296   1274   1277   1380   1429   1344   1348   1362   1416   1727   1468   1365   1447   1363   1337   1355   1376   1455   1617   1562   1501   1588   1657   1580   1687   1897   1699   1840   2037   1821   1975   1932   1729   1608   1614   1616   1639   1709   2077   2742   1933   1810   1919   1967   1713   2020   2128   1725   1852   1903   1472   1644   1473   1301   1379   1697   1437   1293   1282   1281   1293   1286   1286   1383   1616   1330   1415   1330   1285   1280   1284   1280   1280   1280   1445   1280   1280   1286   1593   2274   1837   1912   1955   1874   1893   2059   2096   2269   2322   2484   2532   2610   2960   2880   2910   2937   2882   2824   2658   2640   2563   2576   2500   2500   2202   1972   1903   1976   1946   2086   2221   2012   2211   2527   2603   2501   2185   2085   2057   2077   2112   2127   2036   1987   1932   1911   1922   1948   1962   1953   1952   2017   2223   2196   2295   2263   2292   2385   2603   2746   2818   3036   2826   2653   2679   2483   2605   2701   2712   2505   2500   2578   2529   2590   2644   2456   2291   2175   2192   2093   2008   1896   1849   1827   1825   1815   1786   1692   1656   1632   1604   1610   1616   1652   1623   1584   1565   1543   1483   1395   1380   1390   1407   1383   1352   1329   1294   1262   1227   1189   1159   1123   1106   1088   1083   1105   1124   1106   1088   1067   1053   1042   1026   1006   1011    992    983    981    974    966    962    945    930    922    916    899    865    822    797    792    796    791    787    790    793    779    761    747    729    713    700    680    665    650    639    639    632    624    596    588    577    569    557    547    566    556    549    544    533    521    505    491
-3797  -3753  -3707  -3662  -3621  -3614  -3615  -3609  -3362  -3481  -3601  -3593  -3556  -3590  -3453  -3477  -3494  -3270  -3437  -3129  -3349  -3407  -3581  -3573  -3387  -3384  -3323  -3203  -3072  -3061  -3010  -3123  -3084  -3080  -3081  -3139  -3127  -3120  -3145  -3062  -3006  -3011  -3196  -3200  -3172  -3162  -3148  -3154  -3156  -3156  -3193  -3194  -3196  -3095  -3198  -3285  -3081  -3002  -2963  -2895  -2582  -2844  -2596  -2325  -2279  -2884  -3160  -3067  -2788  -2829  -2158  -2620  -2914  -3002  -3044  -3047  -3010  -3007  -3005  -3023  -3054  -3166  -3185  -3192  -3101  -3146  -3142  -3147  -3160  -3169  -3164  -3161  -3184  -3105  -3081  -2920  -2770  -1679  -1117  -1118   -999   -763   -591   -214   -172   -100     -1    428    482    826    542    495    885   1441   1059   1193   1471   1499   1688   1801   1994   1690    940   1091   1436   1354    725    992    845   1042    966    731    869   1329   1072    968   1109   1033   1010   1081   1361   1311   1464   1656   1567   1747   1659   1707   1731   1708   1839   1851   1920   1935   1758   1558   1449   1584   1634   1776   2053   1857   1673   1650   1790   1247   1220   1428   1217   1211   1260   1466   1663   1458   1344   1339   1276   1305   1419   1379   1359   1517   1345   1334   1323   1500   1499   1346   1342   1357   1370   1447   1828   1688   1563   1623   1643   1727   1801   2137   1898   1792   2017   1894   1871   2024   1971   1702   1658   1727   1633   1645   1741   2351   2041   1821   2128   1985   1731   1996   2032   1786   1898   2032   1560   1777   2106   1358   1337   1364   1301   1291   1295   1291   1423   1295   1289   1300   1395   1395   1373   1290   1280   1280   1286   1280   1280   1288   1298   1281   1292   1347   2011   1960   1606   1853   1814   1978   2105   2074   2093   2341   2279   2274   2322   2467   2615   2683   2722   2694   2704   2686   2430   2338   2279   2188   2128   2128   2039   1985   1929   1878   2062   2143   2329   2102   2281   2512   2502   2337   2180   2138   2129   2161   2113   2122   2119   2152   1989   2037   1949   1899   1939   1974   1958   1977   2037   2122   2282   2244   2348   2471   2784   2775   2683   2922   2730   2520   2415   2474   2611   2740   2705   2493   2473   2337   2291   2345   2517   2409   2391   2334   2331   2271   2168   2058   1956   1903   1889   1850   1798   1748   1711   1668   1632   1605   1595   1693   1616   1586   1556   1531   1411   1480   1451   1420   1385   1369   1347   1325   1308   1288   1273   1255   1230   1197   1148   1129   1111   1083   1057   1040   1038   1043   1053   1036   1017    993    996    987    975    968    960    948    942    928    916    897    879    844    820    831    847    839    830    832    834    825    808    775    768    753    716    702    693    691    674    646    628    618    611    597    589    586    582    566    554    542    532    543    542    534    529    523    511    503
-3796  -3752  -3690  -3635  -3606  -3571  -3565  -3515  -3597  -3596  -3568  -3546  -3521  -3527  -3531  -3518  -3525  -3047  -3301  -3409  -3587  -3492  -3485  -3567  -3441  -2839  -2419  -3064  -3199  -3196  -3131  -3003  -3031  -2840  -2090  -2543  -2937  -3178  -3119  -3180  -3004  -3009  -3194  -3184  -3166  -3196  -3166  -3136  -3149  -3176  -3194  -3195  -3198  -3194  -3199  -3375  -3009  -3002  -2946  -2889  -2794  -2601  -2590  -2407  -2164  -2728  -3096  -3062  -2603  -2958  -2603  -2616  -2991  -3029  -3010  -3116  -3012  -3009  -3006  -3006  -3071  -3103  -3150  -3127  -3099  -3116  -3136  -3149  -3174  -3208  -3229  -3226  -3164  -3105  -3066  -2946  -2007  -1760  -1231  -1173  -1180   -973   -590   -333   -164   -102     -2    460    632    602    418    709   1234   1426   1382   1423   1163   1039   1291   1836   1655   1494   1198   1441   1450   1694   1052    961   1028    975   1154   1271   1139   1399   1502   1180   1038   1041   1040   1399   1351   1269   1318   1358   1471   1617   1718   1771   1860   1810   1667   1922   2231   2213   1746   1631   1567   1796   1882   1754   1730   1944   1838   1872   1865   1247   1215   1372   1222   1211   1207   1343   1713   1334   1288   1277   1274   1288   1432   1427   1282   1468   1424   1317   1348   1508   1773   1759   1413   1401   1412   1452   1619   1618   1698   1804   1816   1738   1899   2190   2111   1830   1977   2121   1844   1875   2070   1892   1695   1805   1739   1668   1738   1685   1730   1747   1825   1931   1816   2055   2131   1870   1816   1874   1626   1523   1907   1395   1336   1358   1305   1287   1286   1291   1396   1289   1285   1283   1298   1357   1465   1286   1280   1280   1280   1280   1283   1283   1280   1292   1359   1431   1940   1630   1921   2271   2063   1953   2205   2160   2042   2071   2188   2209   2238   2269   2357   2453   2480   2409   2427   2381   2347   2340   2424   2453   2132   2132   2123   2088   1925   1870   2020   2249   2547   2353   2270   2321   2376   2290   2250   2217   2185   2271   2133   2104   2036   2025   2019   2028   1972   2017   2031   2007   2008   2127   2222   2186   2336   2433   2571   2842   3000   2741   2526   2622   2454   2359   2417   2621   2716   2729   2725   2460   2357   2237   2226   2245   2272   2305   2440   2469   2366   2235   2105   2049   1968   1892   1826   1829   1790   1754   1722   1678   1641   1609   1588   1620   1596   1569   1534   1510   1489   1466   1436   1409   1379   1338   1318   1293   1278   1253   1240   1223   1204   1177   1168   1163   1138   1118   1101   1092   1070   1047   1022   1004   1001    989    969    958    949    929    917    906    889    877    857    852    870    876    864    860    870    885    871    862    872    851    816    777    744    730    734    720    728    692    669    677    657    620    625    616    594    573    576    570    555    539    530    529    513    516    536    523    511    502
-3796  -3743  -3668  -3616  -3574  -3542  -3524  -3519  -3544  -3582  -3564  -3549  -3493  -3467  -3584  -3583  -3367  -3389  -3591  -3538  -3585  -3489  -3256  -2804  -3049  -3152  -3108  -3199  -3157  -3177  -3139  -3112  -2997  -2992  -2692  -2220  -2457  -3071  -3107  -3180  -3094  -2693  -3102  -3165  -3194  -3099  -3062  -3196  -3179  -3185  -3195  -2989  -3198  -3200  -3262  -3375  -3138  -3002  -2995  -2967  -2976  -2601  -2588  -2044  -1949  -2389  -2973  -3090  -2690  -2595  -2600  -2613  -2988  -3001  -3045  -3238  -3162  -3008  -3005  -3013  -3047  -3059  -3069  -3093  -3097  -3078  -3090  -3148  -3184  -3234  -3293  -3274  -3209  -3146  -3066  -2933  -1873  -1245  -1224  -1204  -1178  -1016   -587   -211   -111   -102     -3    470    555    504    562    682    724   1240   1290    820    873   1334   1366   1860   1865   1990   1651   1386   1840   1782   1518   1029   1095    951   1051   1334   1445   1392   1295   1198   1110   1106   1237   1489   1318   1270   1299   1334   1407   1811   1804   1723   1507   1497   1573   1765   2155   2109   1447   1687   1840   1750   1833   1811   1670   1672   1815   1658   1701   1273   1516   1383   1222   1217   1207   1278   1936   1481   1392   1277   1273   1288   1484   1544   1293   1675   1516   1327   1346   1677   1533   1893   1520   1464   1605   1906   1920   1681   1588   1661   1749   1736   1874   2006   1898   2059   1987   1937   1859   1792   1924   2005   1788   1753   1775   1695   1684   1689   1698   1892   1884   1996   1946   1907   1864   1862   2107   1731   1540   1563   1925   1600   1339   1312   1291   1291   1288   1291   1487   1329   1291   1295   1283   1290   1346   1285   1280   1280   1280   1349   1288   1280   1282   1295   1332   1435   2120   1711   1782   2196   2394   2222   2102   2193   2156   2098   2117   2189   2180   2291   2231   2209   2326   2230   2177   2115   2132   2157   2146   2245   2117   2117   2050   2044   1895   1868   2028   2218   2302   2249   2428   2266   2290   2197   2251   2240   2202   2195   2122   2109   1991   2015   2030   2012   2092   2164   2109   2005   2057   2138   2308   2271   2463   2433   2756   3011   2748   2465   2281   2240   2278   2325   2505   2800   2937   2860   2482   2648   2284   2224   2204   2196   2211   2304   2555   2511   2344   2195   2051   2012   1985   1922   1882   1839   1797   1751   1719   1684   1645   1617   1576   1567   1530   1528   1498   1479   1460   1442   1408   1384   1362   1341   1322   1316   1292   1268   1248   1216   1209   1202   1183   1162   1145   1129   1123   1117   1083   1069   1027   1009    979    969    978    975    944    926    910    897    892    889    885    905    915    910    884    884    885    919    904    885    848    828    795    766    758    766    765    743    705    685    681    683    639    644    643    619    604    589    558    560    553    546    538    532    512    500    499    504    510    510
-3794  -3712  -3631  -3609  -3588  -3541  -3481  -3474  -3507  -3508  -3490  -3535  -3584  -3343  -3283  -3224  -3441  -3536  -3596  -3589  -3584  -3518  -3247  -2725  -2780  -3079  -2780  -3156  -3186  -3185  -3158  -3094  -3180  -3176  -3176  -3142  -3091  -3002  -3060  -3093  -3095  -2793  -3121  -3151  -3162  -3137  -3152  -3197  -3196  -3173  -3196  -3161  -3199  -3200  -3200  -3196  -3101  -3005  -2999  -2991  -2980  -2426  -2322  -2587  -2054  -2283  -2975  -3017  -2602  -2056  -2410  -2611  -2819  -3041  -3184  -3368  -3277  -3184  -3001  -3001  -3016  -3027  -3035  -3056  -3094  -3005  -3008  -3147  -3153  -3216  -3288  -3292  -3203  -3182  -3032  -2919  -1819  -1233  -1216  -1198  -1077   -847   -404   -209   -109    -58    -57    -10    399    628    783    629    411   1136    732    906   1124   1151   1391   1940   1418   1343   1506   1718   1894   1967   1248   1125   1467   1251   1139   1149   1246   1375   1395   1230   1262   1399   1383   1313   1297   1326   1611   1537   1592   1843   1630   1569   1368   1456   1672   1958   2394   1725   1388   1834   2117   1999   1758   1848   1869   1818   1771   1558   1417   1554   2033   1559   1344   1250   1219   1216   1504   1966   2040   1328   1261   1271   1435   1519   1281   1589   1487   1352   1328   1529   1491   1441   1586   1545   1777   2137   2002   2031   1788   1665   1744   1860   2160   2075   1809   1815   2228   2093   1875   1819   1820   1793   1808   1894   1991   1780   1713   1744   1803   2037   1878   1906   2044   1809   1754   1850   2048   1786   1533   1494   1701   1559   1355   1310   1296   1291   1317   1290   1294   1302   1316   1334   1298   1281   1280   1280   1280   1280   1282   1649   1329   1280   1288   1286   1307   1553   1886   1610   1886   1900   2104   2394   2275   2221   2079   2077   2085   2103   2203   2256   2197   2138   2229   2145   2081   2038   2021   2085   2074   2038   1997   1997   1946   1911   1900   1867   1943   2158   2170   2231   2299   2174   2144   2125   2155   2317   2372   2212   2159   2124   2073   2021   1999   2089   2121   2056   2015   2015   2032   2186   2249   2262   2300   2462   2595   2662   2420   2260   2204   2185   2260   2485   2744   2974   3098   2925   2484   2427   2295   2263   2220   2204   2188   2252   2526   2480   2328   2170   2073   2064   1991   1921   1869   1822   1700   1768   1738   1708   1666   1625   1608   1593   1568   1539   1513   1483   1457   1444   1433   1404   1387   1357   1338   1316   1300   1275   1246   1229   1193   1194   1188   1172   1135   1108   1058   1024   1019   1018   1030   1031   1024   1038   1027   1019    997    975    940    940    952    937    934    935    924    912    898    891    885    911    869    860    799    792    788    788    796    780    741    722    728    700    702    669    655    653    643    622    604    577    571    553    550    543    523    519    505    494    485    476    469    466
-3794  -3617  -3574  -3590  -3589  -3585  -3471  -3524  -3561  -3401  -3356  -3491  -3581  -3582  -3403  -3404  -3463  -3562  -3587  -3586  -3584  -3580  -3514  -3508  -3445  -3384  -3133  -3206  -3242  -3217  -3174  -3150  -3136  -3143  -3141  -3164  -3186  -3078  -3006  -3006  -3188  -3011  -3104  -3149  -3197  -3197  -3242  -3197  -3197  -3043  -3197  -3198  -3200  -3201  -3200  -3185  -3133  -3008  -3016  -2817  -2987  -2972  -2599  -2594  -2460  -2611  -2978  -2975  -2337  -2193  -2063  -2610  -2620  -2989  -3176  -3270  -3270  -3179  -2998  -2987  -2996  -3002  -3004  -3001  -3047  -3093  -3096  -3010  -3152  -3159  -3250  -3291  -3196  -3171  -3012  -2006  -1486  -1041  -1026  -1048   -990   -783   -220   -168   -114    -61    -63    -10    449   1001    980    871    705    569    784   1564   1586   1361   1446   1752   1070   1139   1248   1677   2020   1623   1220   1635   2704   2025   1451   1303   1597   1500   1387   1306   1295   1345   1341   1329   1364   1442   1430   1450   1585   1516   1382   1439   1360   1455   1639   2045   2361   1508   1369   1793   1832   1812   1802   1815   1817   1758   1699   1816   1440   1624   1889   1924   1336   1281   1221   1221   1258   1866   1718   1387   1266   1269   1311   1326   1274   1418   1834   1606   1349   1460   1490   1398   1431   1478   1766   1979   1829   1833   1803   1902   1913   1962   2173   2173   1918   1736   2002   2256   1914   1862   2001   1807   1881   2172   2028   1917   1761   1810   1946   2102   1930   1874   1754   1738   1721   1779   1825   1981   1650   1540   1480   1415   1394   1330   1300   1367   1328   1292   1294   1319   1563   1459   1313   1280   1280   1280   1280   1280   1363   1588   1286   1281   1281   1281   1412   2176   1822   2321   2335   2208   2344   2513   2444   2232   1988   1986   2022   2150   2341   2263   2138   2109   2081   2091   2061   2002   1977   2061   2135   2065   1976   1976   1923   1906   1904   1994   1938   2058   2098   2176   2310   2231   2093   2169   2167   2254   2379   2225   2175   2126   2149   2110   2089   2103   2081   2020   2030   2071   2067   2213   2310   2353   2398   2415   2366   2299   2240   2170   2167   2166   2318   2498   2853   3097   3273   3059   2822   2402   2253   2208   2190   2183   2188   2254   2473   2409   2278   2106   2073   2040   1982   1931   1885   1837   1801   1767   1738   1711   1687   1658   1632   1604   1578   1554   1533   1500   1470   1445   1435   1419   1393   1364   1339   1319   1298   1203   1259   1240   1202   1141   1139   1077   1042   1047   1073   1096   1086   1087   1082   1075   1077   1069   1053   1038   1006    983    958    960    969    954    960    948    939    920    914    900    892    858    842    836    835    827    839    803    771    755    750    728    713    711    685    669    685    657    630    622    597    613    609    589    596    587    563    536    503    494    483    477    469    458
-3699  -3558  -3586  -3596  -3086  -3199  -3581  -3580  -3404  -3280  -3040  -3129  -3490  -3486  -3584  -3585  -3585  -3574  -3583  -3583  -3582  -3581  -3397  -3032  -3389  -3365  -3330  -3380  -3293  -3234  -3198  -3166  -3109  -3055  -3060  -3143  -3178  -3190  -3070  -3010  -3101  -3149  -3093  -3165  -3197  -3035  -3231  -3216  -3198  -3090  -3165  -3199  -3200  -3201  -3200  -3198  -3195  -3191  -3047  -3007  -3001  -2979  -2787  -2601  -2603  -2456  -2976  -3192  -2612  -1888  -2067  -2700  -2903  -2981  -2988  -3053  -2995  -2996  -2995  -2913  -2903  -2932  -2994  -3002  -3001  -3002  -3004  -3099  -3106  -3158  -3190  -3267  -3190  -3163  -3001  -1875  -1274  -1100  -1015  -1001   -980   -717   -217   -134   -119    -56    -54    -10    528    623    963   1117    695    858    992   1049   1537   1593   1694   1491    904   1074   1443   1421   1367    974   1034   1576   2272   2023   1876   1832   1592   1559   1493   1507   1523   1447   1342   1344   1400   1512   1452   1666   1358   1342   1348   1359   1343   1388   1583   1910   1868   1400   1369   1671   1825   1745   1717   1920   1843   1718   1713   1818   1759   1617   1886   2188   1666   1278   1252   1287   1243   1473   1304   1268   1259   1270   1336   1272   1272   1379   2201   1791   1384   1388   1508   1563   1497   1463   1594   1654   1670   1715   1707   1740   1866   1971   1860   1871   1793   1819   2218   2316   1946   1964   2025   1896   1953   1986   2071   1888   1804   1931   2270   2170   1880   1819   1853   1690   1692   1913   1748   1690   1647   1728   1729   1520   1494   1530   1596   1376   1356   1353   1300   1341   1654   1679   1319   1280   1280   1280   1296   1291   1484   1514   1281   1281   1281   1283   1379   1986   1973   1857   2281   2153   2392   2519   2322   2189   2013   1938   1990   2134   2282   2209   2153   2090   2085   2022   2014   2008   1982   2003   2063   2017   1957   1957   1951   1931   1919   2053   2051   2000   2041   2117   2278   2228   2074   2149   2152   2161   2144   2140   2108   2152   2142   2171   2016   2116   2048   2048   2080   2109   2146   2251   2274   2419   2367   2266   2320   2328   2197   2116   2083   2150   2395   2690   2749   2865   3068   3017   2758   2396   2259   2211   2188   2163   2172   2252   2482   2363   2227   2087   2076   1988   1908   1840   1803   1749   1718   1687   1681   1643   1631   1618   1617   1609   1576   1551   1532   1516   1487   1452   1402   1341   1345   1346   1293   1273   1250   1232   1220   1161   1109   1080   1087   1097   1122   1128   1141   1145   1126   1113   1106   1108   1091   1079   1069   1047   1034   1018    978    995    982    974    955    940    914    911    899    896    890    865    880    899    897    881    816    817    797    772    753    741    734    683    678    696    678    652    630    603    613    623    609    605    594    563    559    531    543    535    507    483    468    456
-3736  -3713  -3654  -3602  -3595  -3590  -3526  -3345  -3406  -3406  -3404  -3331  -3492  -3372  -3333  -3406  -3463  -3580  -3577  -3578  -3580  -3581  -3488  -3179  -3392  -3391  -3349  -3392  -3350  -3206  -3200  -3193  -3176  -3105  -3133  -3178  -3191  -3192  -3282  -3102  -3058  -3195  -3197  -3193  -3153  -3107  -3197  -3243  -3202  -3199  -3199  -3200  -3201  -3201  -3201  -3199  -3204  -3192  -3102  -3006  -2995  -2985  -2974  -2606  -2603  -2603  -3027  -3331  -3046  -2794  -2792  -2970  -2970  -2795  -2982  -2990  -2994  -2996  -2997  -2919  -2756  -2999  -3002  -2997  -2995  -3002  -3004  -3031  -3078  -3123  -3172  -3271  -3187  -3159  -2711  -1736  -1256  -1020  -1010   -904   -825   -591   -213   -134   -111    -52    -30    379    879    990   1199   1003    589   1038   1574   1536   1579   1856   1597   1037    856   1069   1287   1290    898    834    881   1086   1406   1923   1795   1868   1715   1844   1827   1939   1941   1728   1337   1317   1388   1443   1488   1534   1512   1487   1537   1496   1430   1417   1586   1981   1654   1370   1396   1791   1880   1707   1739   1914   1890   1868   1748   1800   1932   1841   1857   2113   1779   1632   1492   1749   1269   1268   1267   1395   1273   1274   1559   1330   1277   1340   1992   1969   1471   1572   1622   1785   1714   1608   1298   1584   1628   1647   1658   1653   1674   1707   1725   1796   1768   1877   2246   2518   1987   1989   2026   2082   1984   1920   2090   1882   1842   2110   2357   2038   1849   1797   1950   1923   1713   1705   1672   1740   1775   1810   1896   1606   1580   1905   1848   1554   1434   1453   1388   1350   1421   1468   1280   1280   1280   1294   1334   1390   1733   1354   1285   1317   1285   1287   1346   1786   1701   1685   2098   2104   2092   2525   2287   2165   2015   1965   2009   2114   2313   2256   2140   2041   2055   2026   1999   1973   1965   1955   1958   1944   1955   1955   1947   1906   1942   1974   2009   2078   1953   2010   2019   2016   2055   2145   2165   2052   2082   2066   2160   2189   2168   2182   2176   2099   2072   2065   2113   2163   2186   2230   2367   2404   2280   2128   2103   2122   2110   2093   2112   2149   2402   2427   2463   2577   2718   2693   2425   2291   2181   2182   2199   2169   2182   2311   2444   2284   2058   1992   2049   1957   1871   1801   1754   1713   1701   1668   1616   1564   1513   1469   1495   1566   1504   1471   1456   1407   1414   1378   1345   1305   1236   1233   1194   1167   1150   1124   1096   1106   1151   1182   1169   1157   1145   1146   1161   1150   1144   1130   1120   1114   1107   1093   1075   1059   1038   1023   1008   1008   1003    985    976    956    943    916    900    886    881    884    894    880    843    817    808    814    789    769    779    746    708    705    708    686    655    639    622    628    638    625    618    630    603    590    555    568    560    529    532    512    510    490
-3795  -3792  -3792  -3607  -3602  -3468  -3384  -2837  -3325  -3655  -3652  -3588  -3484  -3407  -2976  -3227  -3523  -3504  -3483  -2998  -2610  -3490  -3579  -3576  -3162  -3141  -3394  -3393  -3391  -3271  -3201  -3194  -3168  -3170  -3159  -3189  -3192  -3193  -3284  -3239  -3105  -3197  -3198  -3256  -3191  -3160  -3189  -3244  -3245  -3200  -3200  -3200  -3201  -3201  -3201  -3199  -3196  -3192  -3099  -2953  -2907  -2961  -2980  -2730  -2601  -2235  -2236  -2892  -2975  -3341  -2978  -2611  -2337  -2251  -2620  -2630  -2756  -2884  -3001  -2921  -3001  -2933  -3005  -3002  -3003  -3003  -3003  -3007  -3014  -3111  -3181  -3257  -3185  -3066  -2032  -1469  -1107   -939   -889   -807   -725   -585   -209   -135   -102    -45    299    660    703    883   1337    963    917    630   1160   1301   1767   1272   1390    939    920   1040   1220   1234    856    816    839   1234   1655   1671   1499   1438   1433   1632   1701   2009   2035   1635   1351   1377   1333   1425   1504   1547   1511   1508   1534   1497   1508   1518   1577   2039   1513   1384   1512   1819   1703   1707   1780   1739   1806   1875   1878   1945   1884   1867   1961   1760   1561   2035   2094   1731   1272   1277   1355   1505   1301   1312   1730   1337   1286   1352   1864   2144   1963   2081   1710   1756   1748   1720   1676   1654   1626   1645   1646   1618   1649   1646   1601   1632   1871   1903   2003   2282   2048   1945   2103   2147   1917   2066   2150   2028   1947   1989   2052   1989   1792   1773   1955   2208   1871   1682   1778   2078   1872   1853   1932   1636   1611   1946   1964   1661   1551   1581   1622   1496   1429   1353   1283   1282   1280   1280   1387   1533   1559   1354   1412   1332   1334   1296   1784   1652   1437   1773   2053   1936   1962   2420   2335   2077   1986   2071   2107   2266   2320   2194   2161   2123   2082   2058   2002   1991   1983   1966   1953   1942   1945   1945   1934   1955   1944   1980   2079   2230   2130   1976   1982   1957   2002   2094   2085   2035   2117   2113   2079   2108   2142   2107   2086   2095   2062   2078   2156   2155   2165   2177   2268   2381   2229   2199   2183   2148   2084   2117   2116   2139   2323   2764   2347   2340   2351   2328   2252   2231   2196   2157   2143   2155   2173   2278   2359   2262   2158   2090   1911   1859   1825   1782   1713   1667   1644   1624   1560   1536   1493   1424   1426   1425   1405   1385   1362   1333   1295   1289   1276   1272   1241   1174   1144   1120   1122   1135   1185   1228   1227   1184   1182   1167   1158   1189   1189   1165   1157   1147   1127   1119   1106   1099   1085   1066   1064   1038   1035   1035   1011    985    972    955    935    917    914    903    884    861    853    850    845    810    814    780    764    756    736    721    707    727    698    679    638    633    647    667    661    653    651    604    585    572    596    583    549    538    546    529    515    515
-3742  -3784  -3791  -3787  -3784  -3781  -3720  -3673  -3738  -3783  -3780  -3696  -3581  -3590  -3471  -3589  -3584  -3577  -3393  -2926  -2363  -3257  -3581  -3446  -3276  -3251  -3395  -3214  -3351  -3327  -3257  -3196  -3190  -3187  -3140  -3156  -3193  -3183  -3195  -3286  -3197  -3198  -3216  -3258  -3216  -3152  -3198  -3209  -3246  -3201  -3201  -3201  -3210  -3201  -3200  -3201  -3196  -3193  -3078  -2971  -2917  -2776  -2986  -2856  -2603  -2593  -2051  -2062  -2437  -3167  -3343  -2853  -2102  -2070  -2622  -2634  -2761  -2717  -2826  -3005  -3004  -2997  -3004  -3004  -3004  -3003  -3003  -3005  -3012  -3110  -3203  -3198  -3181  -3151  -2477  -1567  -1035  -1006   -893   -781   -701   -580   -206   -134    -99     -3    -10    490    501    956   1231   1203    900    616    736   1128   1439   1361   1165   1204   1325   1356   1222    876    794    821    879   1261   1908   1668   1519   1392   1419   1415   1479   1569   1550   1358   1291   1280   1326   1401   1446   1512   1502   1525   1551   1528   1540   1461   1508   2064   1541   1359   1610   1836   1768   1711   1906   1812   1832   1825   1841   1944   1912   1847   1881   1745   1400   1736   2117   1872   1328   1417   1671   1584   1295   1495   1576   1406   1308   1323   1561   2033   2211   1897   1988   1868   1795   1778   1713   1667   1624   1649   1647   1626   1583   1618   1574   1615   1739   2182   2194   1992   2046   1955   2014   2120   1976   2241   2377   2379   2000   1876   1878   2081   1848   1778   2092   2011   1894   1809   1786   1896   1922   2017   1948   1722   1684   1968   2162   1698   1624   1569   1526   1499   1492   1318   1286   1299   1330   1328   1341   1436   1618   1440   1647   1423   1354   1318   1825   1401   1369   1715   2376   2087   2160   2216   2305   2119   1987   1944   2052   2112   2240   2245   2201   2162   2121   2096   2041   2031   2049   2006   1987   1959   1980   1980   1974   1922   1945   1993   2077   2175   2095   2009   2003   1995   2073   2081   2051   2079   2120   2138   2083   2071   2067   2036   2030   2050   2077   2106   2147   2137   2096   2088   2136   2188   2224   2208   2117   2067   2045   2046   2059   2100   2232   2324   2246   2223   2193   2193   2202   2163   2147   2173   2182   2159   2169   2202   2146   2121   2032   2032   1951   1851   1744   1693   1697   1658   1635   1602   1535   1473   1433   1364   1418   1421   1383   1398   1397   1367   1318   1276   1218   1185   1147   1137   1137   1165   1214   1265   1279   1239   1221   1185   1181   1164   1180   1180   1176   1182   1172   1166   1155   1136   1120   1107   1091   1072   1064   1061   1042   1037   1019    997    981    955    944    923    909    887    878    873    853    848    828    824    797    772    780    778    760    748    730    724    698    666    670    683    680    661    649    623    609    608    614    620    599    566    562    572    558    530    530    521
-3788  -3784  -3472  -3778  -3778  -3420  -3783  -3606  -3669  -3788  -3784  -3779  -3513  -3486  -3593  -3532  -3407  -3581  -3426  -3397  -3401  -3241  -3446  -3441  -3349  -3358  -3397  -3396  -3394  -3381  -3286  -3200  -3195  -3102  -3132  -3194  -3196  -3089  -3138  -3289  -3110  -3129  -3194  -3251  -3267  -3154  -3096  -3201  -3247  -3247  -3221  -3208  -3208  -3208  -3200  -3199  -3198  -3195  -3010  -3019  -2951  -2997  -2993  -2985  -2732  -2601  -2058  -1888  -2135  -2993  -3166  -2977  -2610  -2615  -2747  -2880  -3007  -3369  -3297  -3007  -3005  -3004  -3004  -3082  -3123  -3002  -3001  -3004  -3011  -3108  -3110  -3192  -3172  -3021  -2018  -1570  -1032  -1003   -936   -753   -592   -576   -203   -104    -98     -3    312    519    869    982   1285   1282   1316   1013    522    743   1000   1056    821    957   1006   1170   1074    906    920    821   1011   1418   1816   1694   1300   1317   1499   1389   1375   1372   1293   1266   1258   1330   1423   1390   1408   1443   1529   1574   1564   1587   1570   1433   1515   1945   1702   1356   1694   1802   1863   1740   1746   1948   1823   1788   1884   1914   1895   1740   1646   1722   1557   1338   1579   1840   1401   1705   1893   1466   1327   1912   1895   1594   1485   1348   1378   1655   2138   2046   1908   2032   1836   1761   1691   1634   1616   1620   1629   1605   1569   1575   1580   1675   1693   2112   2100   1849   1937   2058   2085   2169   2244   2467   2690   2559   2288   1940   1838   1860   2112   1893   1734   1981   1929   2033   1824   1773   1749   1791   2021   2014   1811   2031   2182   1950   1745   1649   1634   1606   1485   1341   1327   1332   1348   1486   1412   1438   1725   1433   1597   1586   1611   1342   1492   1380   1378   1600   2177   1911   2185   2238   1967   2088   2072   1956   1937   2032   2121   2144   2123   2180   2174   2170   2096   2057   2025   2017   2000   1984   1995   1995   1933   1929   1975   2047   2049   2043   2093   2010   2111   2203   2255   2171   2103   2156   2185   2121   2058   2034   2008   2015   2041   2066   2087   2085   2146   2131   2119   2073   2050   2154   2155   2077   2036   1996   2029   2078   2082   2168   2128   2166   2222   2183   2112   2096   2107   2124   2089   2079   2121   2156   2161   2178   2148   1991   1819   1794   1910   1876   1701   1669   1616   1650   1628   1562   1454   1360   1339   1329   1316   1323   1347   1413   1364   1249   1201   1186   1168   1167   1172   1194   1246   1273   1288   1255   1222   1201   1191   1189   1188   1184   1187   1183   1184   1178   1174   1164   1152   1136   1128   1109   1095   1073   1040   1052   1038   1025   1013    991    974    956    925    910    887    872    849    835    832    817    800    783    775    796    787    756    721    713    716    688    674    714    714    674    660    643    650    638    650    647    635    618    583    593    583    568    554    551    530    517
